ply
format ascii 1.0
comment Created by Open3D
element vertex 868
property double x
property double y
property double z
property double nx
property double ny
property double nz
property uchar red
property uchar green
property uchar blue
end_header
-0.0176906 -0.0933189 -0.367 -0.161653 -0.323305 0.932385 0 181 255
-0.0168213 -0.0933189 -0.367 0.17854 -0.178539 0.967599 0 181 255
-0.015952 -0.0933189 -0.367 0 0 1 0 181 255
-0.0150827 -0.0933189 -0.367 0.178106 -0.178107 0.967758 0 181 255
-0.0142134 -0.0933189 -0.367 0 -0.448215 0.893926 0 181 255
-0.0133441 -0.0933189 -0.367 0 -0.448215 0.893926 0 181 255
-0.0124748 -0.0933189 -0.367 0 -0.448215 0.893926 0 181 255
-0.0116055 -0.0933189 -0.367 0.315726 -0.315726 0.894782 0 181 255
-0.0107655 -0.0935732 -0.368 9.7606e-09 -0.448215 0.893926 0 191 255
-0.00986695 -0.0933189 -0.367 -0.405364 -0.405365 0.819365 0 181 255
-0.00899766 -0.0933189 -0.367 0 0 1 0 181 255
-0.00812836 -0.0933189 -0.367 0 0 1 0 181 255
-0.00725907 -0.0933189 -0.367 -0.162348 -0.324695 0.931781 0 181 255
-0.00638977 -0.0933189 -0.367 0 -0.448774 0.893645 0 181 255
-0.00552048 -0.0933189 -0.367 -0.260078 -0.520155 0.81351 0 181 255
-0.00463851 -0.0930646 -0.366 -0.407921 -0.407923 0.816823 0 172 255
-0.00377158 -0.0930646 -0.366 0.177592 -0.177595 0.967947 0 172 255
-0.00290466 -0.0930646 -0.366 0 -0.449058 0.893503 0 172 255
-0.00203773 -0.0930646 -0.366 0 -0.449058 0.893503 0 172 255
-0.00117081 -0.0930646 -0.366 0 -0.449058 0.893503 0 172 255
-0.000303879 -0.0930646 -0.366 0.313619 -0.313619 0.896262 0 172 255
0.000564585 -0.0933189 -0.367 0.313411 -0.31341 0.896408 0 181 255
0.00143388 -0.0933189 -0.367 0 -0.448774 0.893645 0 181 255
0.00230317 -0.0933189 -0.367 0.176946 -0.176946 0.968184 0 181 255
0.00317247 -0.0933189 -0.367 0.176591 -0.176592 0.968313 0 181 255
0.00404176 -0.0933189 -0.367 0 -0.448215 0.893926 0 181 255
0.00491106 -0.0933189 -0.367 0 -0.448215 0.893926 0 181 255
0.00578035 -0.0933189 -0.367 0.311549 -0.31155 0.897705 0 181 255
0.00666777 -0.0935732 -0.368 0.311343 -0.311344 0.897848 0 191 255
0.00753943 -0.0935732 -0.368 0.176093 -0.176093 0.968495 0 191 255
0.00841109 -0.0935732 -0.368 0.175733 -0.175733 0.968626 0 191 255
0.00928276 -0.0935732 -0.368 0 -0.447358 0.894355 0 191 255
0.0101544 -0.0935732 -0.368 0 -0.447357 0.894355 0 191 255
0.0110261 -0.0935732 -0.368 0 -0.447357 0.894355 0 191 255
0.0118977 -0.0935732 -0.368 0 -0.447357 0.894355 0 191 255
0.0127694 -0.0935732 -0.368 -0.163106 -0.326215 0.931118 0 191 255
0.0136411 -0.0935732 -0.368 0 0 1 0 191 255
0.0145127 -0.0935732 -0.368 -0.41417 -0.414169 0.81051 0 191 255
0.0153426 -0.0933189 -0.367 -0.316742 -0.316742 0.894063 0 181 255
0.0162119 -0.0933189 -0.367 -0.363681 0 0.931524 0 181 255
0.0170346 -0.0930646 -0.366 -0.622979 0 0.782238 0 172 255
0.0179016 -0.0930646 -0.366 0 0 1 0 172 255
0.0659071 -0.0973873 -0.383 0 0 0 102 255 152
0.0670142 -0.0963702 -0.379 -0.965509 0 0.260368 62 255 192
0.0675536 -0.0958617 -0.377 -0.973082 0.194622 0.123427 38 255 216
0.0679019 -0.0950988 -0.374 -0.887971 0.443992 0.119911 1 255 253
0.0686038 -0.0948446 -0.373 -0.898213 0.40812 0.163253 0 248 255
0.0689284 -0.0940817 -0.37 -0.974844 0.217019 0.0508176 0 215 255
0.0699171 -0.0930646 -0.366 0 0 0 0 172 255
0.0702806 -0.0912847 -0.359 -0.991747 -0.0985907 0.0819621 0 86 255
0.0705365 -0.0905219 -0.356 -0.990412 0 0.138142 0 49 255
0.0709788 -0.0900133 -0.354 -0.941179 0 0.337909 0 37 255
0.0716144 -0.0897591 -0.353 -0.844842 0 0.535015 0 35 255
0.0722453 -0.0895048 -0.352 -0.846654 0 0.532143 0 33 255
0.0728714 -0.0892505 -0.351 -0.848461 0 0.529258 0 31 255
0.0734929 -0.0889962 -0.35 -0.850264 0 0.526357 0 29 255
0.0741095 -0.088742 -0.349 -0.852067 0 0.523432 0 28 255
0.0747215 -0.0884877 -0.348 -0.571611 0 0.820525 0 26 254
0.0755458 -0.0884877 -0.348 -0.62496 -0.312481 0.715388 0 26 254
0.0761506 -0.0882334 -0.347 -0.38085 -0.190425 0.904816 0 25 255
0.0769725 -0.0882334 -0.347 -0.575652 0 0.817695 0 25 255
0.0775703 -0.0879791 -0.346 -0.576727 0 0.816937 0 23 255
0.0783898 -0.0879791 -0.346 0 0 1 0 23 255
0.0792094 -0.0879791 -0.346 -0.383657 -0.191828 0.903332 0 23 255
0.0797976 -0.0877249 -0.345 -0.630937 -0.315469 0.7088 0 21 255
0.0806148 -0.0877249 -0.345 0 0 1 0 21 255
0.081432 -0.0877249 -0.345 0 0 1 0 21 255
0.0822492 -0.0877249 -0.345 0 0 1 0 21 255
0.0830664 -0.0877249 -0.345 0 0 1 0 21 255
0.0838835 -0.0877249 -0.345 0 0 1 0 21 255
0.0847007 -0.0877249 -0.345 0 0 1 0 21 255
0.0855179 -0.0877249 -0.345 0 0 1 0 21 255
0.0863351 -0.0877249 -0.345 0 0 1 0 21 255
0.0871523 -0.0877249 -0.345 0 0 1 0 21 255
0.0879695 -0.0877249 -0.345 0 0 1 0 21 255
0.0887867 -0.0877249 -0.345 0 0 1 0 21 255
0.0896038 -0.0877249 -0.345 0 0 1 0 21 255
0.090421 -0.0877249 -0.345 0 0 1 0 21 255
0.0912382 -0.0877249 -0.345 0.178319 -0.17832 0.96768 0 21 255
0.0920554 -0.0877249 -0.345 0 -0.467625 0.883927 0 21 255
0.0928726 -0.0877249 -0.345 0.30328 -0.30328 0.903351 0 21 255
0.0939613 -0.0879791 -0.346 0.303082 -0.303083 0.903483 0 23 255
0.0947809 -0.0879791 -0.346 0.177884 -0.177884 0.96784 0 23 255
0.0956004 -0.0879791 -0.346 0 0 1 0 23 255
0.09642 -0.0879791 -0.346 0 0 1 0 23 255
0.0972395 -0.0879791 -0.346 0 0 1 0 23 255
0.0980591 -0.0879791 -0.346 0 0 1 0 23 255
0.0988786 -0.0879791 -0.346 0 0 1 0 23 255
0.0996982 -0.0879791 -0.346 0 0 1 0 23 255
0.100518 -0.0879791 -0.346 0 0 1 0 23 255
0.101337 -0.0879791 -0.346 0 0 1 0 23 255
0.102157 -0.0879791 -0.346 0 0 1 0 23 255
0.102976 -0.0879791 -0.346 0 0 1 0 23 255
0.103796 -0.0879791 -0.346 0 0 1 0 23 255
0.104616 -0.0879791 -0.346 -0.470028 -0.470028 0.747093 0 23 255
0.10513 -0.0877249 -0.345 -0.287834 -0.575671 0.765346 0 21 255
0.105948 -0.0877249 -0.345 -0.179299 -0.3586 0.91611 0 21 255
0.106765 -0.0877249 -0.345 0 0 1 0 21 255
0.107582 -0.0877249 -0.345 -0.179725 -0.359448 0.915694 0 21 255
0.108399 -0.0877249 -0.345 0 -0.468246 0.883598 0 21 255
0.109216 -0.0877249 -0.345 0 -0.468247 0.883597 0 21 255
0.110033 -0.0877249 -0.345 0 -0.468246 0.883598 0 21 255
0.110851 -0.0877249 -0.345 0 -0.468246 0.883598 0 21 255
0.111668 -0.0877249 -0.345 0 -0.468247 0.883598 0 21 255
0.112485 -0.0877249 -0.345 0 -0.468245 0.883598 0 21 255
0.113302 -0.0877249 -0.345 0 -0.468247 0.883598 0 21 255
0.114119 -0.0877249 -0.345 0 -0.468246 0.883598 0 21 255
0.114937 -0.0877249 -0.345 0 -0.468247 0.883598 0 21 255
0.115754 -0.0877249 -0.345 0 -0.468246 0.883598 0 21 255
0.116571 -0.0877249 -0.345 0 -0.468246 0.883598 0 21 255
0.117388 -0.0877249 -0.345 0.176308 -0.176308 0.968417 0 21 255
0.118205 -0.0877249 -0.345 0 0 1 0 21 255
0.119022 -0.0877249 -0.345 0.175873 -0.175876 0.968574 0 21 255
0.11984 -0.0877249 -0.345 0.296904 -0.296907 0.907576 0 21 255
0.121007 -0.0879791 -0.346 0.296718 -0.296717 0.907699 0 23 255
0.121826 -0.0879791 -0.346 0.175523 -0.175519 0.968703 0 23 255
0.122646 -0.0879791 -0.346 0.175167 -0.175168 0.96883 0 23 255
0.123465 -0.0879791 -0.346 0 -0.466712 0.884409 0 23 255
0.124285 -0.0879791 -0.346 0.295397 -0.295398 0.90856 0 23 255
0.125466 -0.0882334 -0.347 0.295209 -0.295209 0.908682 0 25 255
0.126288 -0.0882334 -0.347 0.174748 -0.174747 0.968982 0 25 255
0.12711 -0.0882334 -0.347 -0.401697 -0.200849 0.893476 0 25 255
0.127563 -0.0879791 -0.346 -0.180564 -0.361129 0.914868 0 23 255
0.128754 -0.0882334 -0.347 0.29446 -0.294462 0.909167 0 25 255
0.129576 -0.0882334 -0.347 0.174469 -0.174467 0.969083 0 25 255
0.130397 -0.0882334 -0.347 0 0 1 0 25 255
0.131219 -0.0882334 -0.347 -0.221172 0.221178 0.949823 0 25 255
0.132041 -0.0882334 -0.347 -0.432758 0.43276 0.790847 0 25 255
0.13248 -0.0879791 -0.346 -0.622322 0 0.782761 0 23 255
0.1333 -0.0879791 -0.346 0 0 1 0 23 255
0.134119 -0.0879791 -0.346 0 0 1 0 23 255
0.134939 -0.0879791 -0.346 0 0 1 0 23 255
0.135759 -0.0879791 -0.346 0 0 1 0 23 255
0.136578 -0.0879791 -0.346 0 0 1 0 23 255
0.137398 -0.0879791 -0.346 0 0 1 0 23 255
0.138217 -0.0879791 -0.346 0 0 1 0 23 255
0.139037 -0.0879791 -0.346 0 0 1 0 23 255
0.139856 -0.0879791 -0.346 0 0 1 0 23 255
0.140676 -0.0879791 -0.346 0.173631 -0.173631 0.969384 0 23 255
0.141495 -0.0879791 -0.346 0.291499 -0.291502 0.911073 0 23 255
0.142726 -0.0882334 -0.347 0.291317 -0.291317 0.911191 0 25 255
0.143548 -0.0882334 -0.347 0 -0.466409 0.884569 0 25 255
0.14437 -0.0882334 -0.347 0 -0.466407 0.88457 0 25 255
0.145192 -0.0882334 -0.347 0 -0.466408 0.88457 0 25 255
0.146014 -0.0882334 -0.347 0 -0.466409 0.884569 0 25 255
0.146836 -0.0882334 -0.347 0 -0.466407 0.88457 0 25 255
0.147658 -0.0882334 -0.347 0.172943 -0.172945 0.969629 0 25 255
0.14848 -0.0882334 -0.347 0 0 1 0 25 255
0.149302 -0.0882334 -0.347 0 0 1 0 25 255
0.150124 -0.0882334 -0.347 0 0 1 0 25 255
0.150945 -0.0882334 -0.347 0 0 1 0 25 255
0.151767 -0.0882334 -0.347 0 0 1 0 25 255
0.152589 -0.0882334 -0.347 0 0 1 0 25 255
-0.0258619 -0.0954714 -0.372 -0.725614 0 0.688101 0 239 255
-0.0249136 -0.0952148 -0.371 -0.72665 0 0.687008 0 229 255
-0.02397 -0.0949581 -0.37 -0.730895 -0.208906 0.649732 0 215 255
-0.0230312 -0.0947015 -0.369 -0.64673 -0.129417 0.751659 0 202 255
-0.0220971 -0.0944448 -0.368 -0.731647 0 0.681683 0 191 255
-0.0211678 -0.0941882 -0.367 -0.486093 0 0.873907 0 181 255
-0.0202985 -0.0941882 -0.367 0 0 1 0 181 255
-0.0194292 -0.0941882 -0.367 0 0 1 0 181 255
-0.0185599 -0.0941882 -0.367 0 0 1 0 181 255
-0.0176906 -0.0941882 -0.367 0 0 1 0 181 255
-0.0168213 -0.0941882 -0.367 0 0 1 0 181 255
-0.015952 -0.0941882 -0.367 0.178107 -0.178107 0.967758 0 181 255
-0.0150827 -0.0941882 -0.367 0.316361 -0.316361 0.894333 0 181 255
-0.0142522 -0.0944448 -0.368 0.316149 -0.316149 0.894483 0 191 255
-0.0133805 -0.0944448 -0.368 0 -0.447507 0.894281 0 191 255
-0.0125088 -0.0944448 -0.368 0 -0.447507 0.89428 0 191 255
-0.0116372 -0.0944448 -0.368 0 -0.447507 0.89428 0 191 255
-0.0107655 -0.0944448 -0.368 0.177526 -0.177527 0.967972 0 191 255
-0.00989384 -0.0944448 -0.368 -0.404833 -0.404834 0.81989 0 191 255
-0.00899766 -0.0941882 -0.367 -0.258912 -0.517825 0.815366 0 181 255
-0.00812836 -0.0941882 -0.367 -0.161945 -0.32389 0.932131 0 181 255
-0.00725907 -0.0941882 -0.367 0 0 1 0 181 255
-0.00638977 -0.0941882 -0.367 0 0 1 0 181 255
-0.00552048 -0.0941882 -0.367 0 0 1 0 181 255
-0.00465118 -0.0941882 -0.367 -0.407384 -0.407387 0.817358 0 181 255
-0.00377158 -0.0939315 -0.366 -1.95631e-08 -0.448349 0.893859 0 172 255
-0.00291259 -0.0941882 -0.367 0.314036 -0.314038 0.895969 0 181 255
-0.0020433 -0.0941882 -0.367 0 -0.448349 0.893859 0 181 255
-0.001174 -0.0941882 -0.367 0 -0.448349 0.893859 0 181 255
-0.000304709 -0.0941882 -0.367 0 -0.448349 0.893859 0 181 255
0.000564585 -0.0941882 -0.367 0.177017 -0.177018 0.968158 0 181 255
0.00143388 -0.0941882 -0.367 0.176664 -0.176664 0.968287 0 181 255
0.00230317 -0.0941882 -0.367 0 -0.44779 0.894139 0 181 255
0.00317247 -0.0941882 -0.367 0.311962 -0.311963 0.897418 0 181 255
0.00405278 -0.0944448 -0.368 0.311756 -0.311756 0.897561 0 191 255
0.00492444 -0.0944448 -0.368 0 -0.447507 0.894281 0 191 255
0.0057961 -0.0944448 -0.368 0.133329 -0.532965 0.835567 0 191 255
0.00666777 -0.0944448 -0.368 0.133085 -0.532694 0.835778 0 191 255
0.00753943 -0.0944448 -0.368 0 -0.446934 0.894567 0 191 255
0.00841109 -0.0944448 -0.368 0.310104 -0.310105 0.898705 0 191 255
0.00930798 -0.0947015 -0.369 0.3099 -0.3099 0.898846 0 202 255
0.010182 -0.0947015 -0.369 0 -0.446652 0.894708 0 202 255
0.011056 -0.0947015 -0.369 0 -0.446652 0.894708 0 202 255
0.0119301 -0.0947015 -0.369 0 -0.446652 0.894708 0 202 255
0.0128041 -0.0947015 -0.369 -0.26178 -0.523561 0.810774 0 202 255
0.0136411 -0.0944448 -0.368 -0.413177 -0.413178 0.811522 0 191 255
0.0145127 -0.0944448 -0.368 0 0 1 0 191 255
0.0670142 -0.0972679 -0.379 -0.976391 0.139799 0.164674 62 255 192
0.0675536 -0.0967546 -0.377 -0.983711 0.163954 0.0736964 38 255 216
0.0677203 -0.0957281 -0.373 -0.936999 0.334838 0.0995847 0 248 255
0.0684199 -0.0954714 -0.372 -0.75824 0.606025 0.240429 0 239 255
0.0689284 -0.0949581 -0.37 -0.974442 0.194266 0.112795 0 215 255
0.0694275 -0.0944448 -0.368 0 0 0 0 191 255
0.0697261 -0.0936749 -0.365 -0.995538 0 0.0943636 0 160 255
0.0700105 -0.092905 -0.362 -0.98785 0.123736 0.0940312 0 119 255
0.0704764 -0.0923917 -0.36 -0.996001 0.0774035 0.0446184 0 99 255
0.0705365 -0.0913651 -0.356 -0.991765 -0.0582607 0.114055 0 49 255
0.0709788 -0.0908518 -0.354 -0.959237 0.0958673 0.265846 0 37 255
0.0716144 -0.0905952 -0.353 -0.815362 0.407683 0.411071 0 35 255
0.0722453 -0.0903385 -0.352 -0.816653 0.408333 0.40785 0 33 255
0.0728714 -0.0900819 -0.351 -0.782755 0.313277 0.537729 0 31 255
0.0734929 -0.0898253 -0.35 -0.850264 0 0.526357 0 29 255
0.0741095 -0.0895686 -0.349 -0.852067 0 0.523432 0 28 255
0.0747215 -0.089312 -0.348 -0.57161 0 0.820526 0 26 254
0.0755458 -0.089312 -0.348 -0.573108 0 0.81948 0 26 254
0.0761506 -0.0890553 -0.347 -0.57417 0 0.818736 0 25 255
0.0769725 -0.0890553 -0.347 -0.38162 -0.19081 0.90441 0 25 255
0.0775703 -0.0887987 -0.346 -0.627606 -0.313802 0.712488 0 23 255
0.0783898 -0.0887987 -0.346 0 0 1 0 23 255
0.0792094 -0.0887987 -0.346 0 0 1 0 23 255
0.0800289 -0.0887987 -0.346 -0.458097 -0.458099 0.761769 0 23 255
0.0806148 -0.088542 -0.345 -0.283081 -0.566163 0.774161 0 21 255
0.081432 -0.088542 -0.345 -0.177093 -0.354185 0.918254 0 21 255
0.0822492 -0.088542 -0.345 0 0 1 0 21 255
0.0830664 -0.088542 -0.345 0 0 1 0 21 255
0.0838835 -0.088542 -0.345 0 0 1 0 21 255
0.0847007 -0.088542 -0.345 0 0 1 0 21 255
0.0855179 -0.088542 -0.345 0 0 1 0 21 255
0.0863351 -0.088542 -0.345 0 0 1 0 21 255
0.0871523 -0.088542 -0.345 0 0 1 0 21 255
0.0879695 -0.088542 -0.345 0 0 1 0 21 255
0.0887867 -0.088542 -0.345 0 0 1 0 21 255
0.0896038 -0.088542 -0.345 0.178395 -0.178392 0.967653 0 21 255
0.090421 -0.088542 -0.345 0 -0.467169 0.884168 0 21 255
0.0912382 -0.088542 -0.345 0.303475 -0.303476 0.903219 0 21 255
0.0923222 -0.0887987 -0.346 0.30328 -0.303279 0.903351 0 23 255
0.0931418 -0.0887987 -0.346 0 -0.466863 0.88433 0 23 255
0.0939613 -0.0887987 -0.346 0.177883 -0.177884 0.96784 0 23 255
0.0947809 -0.0887987 -0.346 0 0 1 0 23 255
0.0956004 -0.0887987 -0.346 0 0 1 0 23 255
0.09642 -0.0887987 -0.346 0 0 1 0 23 255
0.0972395 -0.0887987 -0.346 0 0 1 0 23 255
0.0980591 -0.0887987 -0.346 0 0 1 0 23 255
0.0988786 -0.0887987 -0.346 0 0 1 0 23 255
0.0996982 -0.0887987 -0.346 0 0 1 0 23 255
0.100518 -0.0887987 -0.346 0 0 1 0 23 255
0.101337 -0.0887987 -0.346 0 0 1 0 23 255
0.102157 -0.0887987 -0.346 0 0 1 0 23 255
0.102976 -0.0887987 -0.346 0 0 1 0 23 255
0.103796 -0.0887987 -0.346 0 0 1 0 23 255
0.104616 -0.0887987 -0.346 0 0 1 0 23 255
0.105435 -0.0887987 -0.346 -0.17895 -0.357904 0.916451 0 23 255
0.106255 -0.0887987 -0.346 -0.287684 -0.575371 0.765628 0 23 255
0.106765 -0.088542 -0.345 -0.287836 -0.575671 0.765345 0 21 255
0.107582 -0.088542 -0.345 0 -0.467168 0.884168 0 21 255
0.108399 -0.088542 -0.345 -0.17937 -0.35874 0.916042 0 21 255
0.109216 -0.088542 -0.345 0 0 1 0 21 255
0.110033 -0.088542 -0.345 0 0 1 0 21 255
0.110851 -0.088542 -0.345 0 0 1 0 21 255
0.111668 -0.088542 -0.345 0 0 1 0 21 255
0.112485 -0.088542 -0.345 0 0 1 0 21 255
0.113302 -0.088542 -0.345 0 0 1 0 21 255
0.114119 -0.088542 -0.345 0 0 1 0 21 255
0.114937 -0.088542 -0.345 0 0 1 0 21 255
0.115754 -0.088542 -0.345 0 0 1 0 21 255
0.116571 -0.088542 -0.345 0 0 1 0 21 255
0.117388 -0.088542 -0.345 0 0 1 0 21 255
0.118205 -0.088542 -0.345 0 0 1 0 21 255
0.119022 -0.088542 -0.345 0.450641 0 0.892705 0 21 255
0.120187 -0.0887987 -0.346 0.296715 -0.296717 0.9077 0 23 255
0.121007 -0.0887987 -0.346 0.175521 -0.175522 0.968702 0 23 255
0.121826 -0.0887987 -0.346 0 0 1 0 23 255
0.122646 -0.0887987 -0.346 0.343581 0.171791 0.923277 0 23 255
0.123822 -0.0890553 -0.347 0.447654 -1.03398e-08 0.894207 0 25 255
0.124644 -0.0890553 -0.347 0 -0.465952 0.88481 0 25 255
0.125466 -0.0890553 -0.347 0.174745 -0.174748 0.968983 0 25 255
0.126288 -0.0890553 -0.347 0 0 1 0 25 255
0.12711 -0.0890553 -0.347 0 0 1 0 25 255
0.127932 -0.0890553 -0.347 -0.18042 -0.360846 0.915008 0 25 255
0.128754 -0.0890553 -0.347 0.174464 -0.174469 0.969083 0 25 255
0.129576 -0.0890553 -0.347 0 0 1 0 25 255
0.130397 -0.0890553 -0.347 -0.221178 0.221176 0.949822 0 25 255
0.131219 -0.0890553 -0.347 -0.432757 0.432761 0.790847 0 25 255
0.131661 -0.0887987 -0.346 -0.433108 0.433112 0.790463 0 23 255
0.13248 -0.0887987 -0.346 -0.221727 0.221727 0.949565 0 23 255
0.1333 -0.0887987 -0.346 0 0 1 0 23 255
0.134119 -0.0887987 -0.346 0 0 1 0 23 255
0.134939 -0.0887987 -0.346 0 0 1 0 23 255
0.135759 -0.0887987 -0.346 0 0 1 0 23 255
0.136578 -0.0887987 -0.346 0 0 1 0 23 255
0.137398 -0.0887987 -0.346 0 0 1 0 23 255
0.138217 -0.0887987 -0.346 0 0 1 0 23 255
0.139037 -0.0887987 -0.346 0 0 1 0 23 255
0.139856 -0.0887987 -0.346 0 0 1 0 23 255
0.140676 -0.0887987 -0.346 0.438894 0 0.898539 0 23 255
0.141904 -0.0890553 -0.347 0.291317 -0.291318 0.911191 0 25 255
0.142726 -0.0890553 -0.347 0.173285 -0.173289 0.969507 0 25 255
0.143548 -0.0890553 -0.347 0 0 1 0 25 255
0.14437 -0.0890553 -0.347 0 0 1 0 25 255
0.145192 -0.0890553 -0.347 0 0 1 0 25 255
0.146014 -0.0890553 -0.347 0 0 1 0 25 255
0.146836 -0.0890553 -0.347 0 0 1 0 25 255
0.147658 -0.0890553 -0.347 0 0 1 0 25 255
0.14848 -0.0890553 -0.347 0 0 1 0 25 255
0.149302 -0.0890553 -0.347 0 0 1 0 25 255
0.150124 -0.0890553 -0.347 0 0 1 0 25 255
0.150945 -0.0890553 -0.347 0 0 1 0 25 255
0.151767 -0.0890553 -0.347 0 0 1 0 25 255
0.152589 -0.0890553 -0.347 0 0 1 0 25 255
-0.0249136 -0.0960935 -0.371 -0.727343 0 0.686275 0 229 255
-0.02397 -0.0958345 -0.37 -0.728197 0 0.685368 0 215 255
-0.0230312 -0.0955755 -0.369 -0.729916 0 0.683537 0 202 255
-0.0220971 -0.0953165 -0.368 -0.648015 -0.129535 0.750531 0 191 255
-0.0211678 -0.0950575 -0.367 -0.536157 -0.268078 0.800419 0 181 255
-0.0202985 -0.0950575 -0.367 0 0 1 0 181 255
-0.0194292 -0.0950575 -0.367 0 0 1 0 181 255
-0.0185599 -0.0950575 -0.367 0 0 1 0 181 255
-0.0176906 -0.0950575 -0.367 0 0 1 0 181 255
-0.0168213 -0.0950575 -0.367 0.178106 -0.178106 0.967758 0 181 255
-0.015952 -0.0950575 -0.367 0.31636 -0.31636 0.894334 0 181 255
-0.0151238 -0.0953165 -0.368 0.316149 -0.316148 0.894483 0 191 255
-0.0142522 -0.0953165 -0.368 0.177744 -0.177743 0.967892 0 191 255
-0.0133805 -0.0953165 -0.368 0 0 1 0 191 255
-0.0125088 -0.0953165 -0.368 0.177306 -0.177305 0.968053 0 191 255
-0.0116372 -0.0953165 -0.368 -0.161249 -0.322498 0.932735 0 191 255
-0.0107655 -0.0953165 -0.368 0 0 1 0 191 255
-0.00989384 -0.0953165 -0.368 0 0 1 0 191 255
-0.00902217 -0.0953165 -0.368 -0.161656 -0.323311 0.932383 0 191 255
-0.00815051 -0.0953165 -0.368 -0.258783 -0.517564 0.815573 0 191 255
-0.00725907 -0.0950575 -0.367 -0.258912 -0.517823 0.815367 0 181 255
-0.00638977 -0.0950575 -0.367 -0.161945 -0.323889 0.932132 0 181 255
-0.00552048 -0.0950575 -0.367 0 0 1 0 181 255
-0.00465118 -0.0950575 -0.367 0 0 1 0 181 255
-0.00378189 -0.0950575 -0.367 -0.162347 -0.324694 0.931782 0 181 255
-0.00291259 -0.0950575 -0.367 0.177233 -0.177233 0.968079 0 181 255
-0.0020433 -0.0950575 -0.367 0 0 1 0 181 255
-0.001174 -0.0950575 -0.367 0.176807 -0.176806 0.968235 0 181 255
-0.000304709 -0.0950575 -0.367 0 -0.447364 0.894352 0 181 255
0.000564585 -0.0950575 -0.367 0 -0.447364 0.894352 0 181 255
0.00143388 -0.0950575 -0.367 0.31217 -0.312169 0.897274 0 181 255
0.00230945 -0.0953165 -0.368 0.311963 -0.311962 0.897418 0 191 255
0.00318111 -0.0953165 -0.368 0 -0.447082 0.894493 0 191 255
0.00405278 -0.0953165 -0.368 0.311237 -0.311236 0.897922 0 191 255
0.00492444 -0.0953165 -0.368 0 -0.446509 0.894779 0 191 255
0.0057961 -0.0953165 -0.368 0.310514 -0.310513 0.898422 0 191 255
0.00668589 -0.0955755 -0.369 0.310309 -0.310308 0.898564 0 202 255
0.00755992 -0.0955755 -0.369 0 -0.446228 0.894919 0 202 255
0.00843395 -0.0955755 -0.369 0 -0.446228 0.894919 0 202 255
0.00930798 -0.0955755 -0.369 0.17538 -0.175379 0.968754 0 202 255
0.010182 -0.0955755 -0.369 0.175027 -0.175026 0.968881 0 202 255
0.011056 -0.0955755 -0.369 0 -0.445664 0.8952 0 202 255
0.0119301 -0.0955755 -0.369 0 -0.445664 0.8952 0 202 255
0.0128041 -0.0955755 -0.369 0 -0.445664 0.8952 0 202 255
0.0136781 -0.0955755 -0.369 -0.261451 -0.522901 0.811306 0 202 255
0.0670142 -0.0981656 -0.379 -0.992992 0.0996131 0.0636008 62 255 192
0.0673744 -0.0973886 -0.376 -0.977524 0.205691 0.0462393 22 255 232
0.0675388 -0.0963525 -0.372 -0.966875 0.241601 0.0823542 0 239 255
0.068236 -0.0960935 -0.371 -0.67472 0.675935 0.296419 0 229 255
0.0697261 -0.0945395 -0.365 -0.936253 0.349969 0.030858 0 160 255
0.0700105 -0.0937624 -0.362 -0.993952 0.0833989 0.0714367 0 119 255
0.0702806 -0.0929854 -0.359 -0.968758 0.241177 0.0578037 0 86 255
0.0705365 -0.0922084 -0.356 -0.992415 0.109854 0.0551699 0 49 255
0.0709788 -0.0916903 -0.354 -0.976738 0 0.214435 0 37 255
0.0714115 -0.0911723 -0.352 -0.885353 0.294969 0.359367 0 33 255
0.07204 -0.0909133 -0.351 -0.817191 0.408598 0.406505 0 31 255
0.0726638 -0.0906543 -0.35 -0.540181 0.540178 0.6453 0 29 255
0.0734929 -0.0906543 -0.35 -0.707018 0.176877 0.68472 0 29 255
0.0741095 -0.0903953 -0.349 -0.852067 0 0.523432 0 28 255
0.0747215 -0.0901363 -0.348 -0.57161 0 0.820526 0 26 254
0.0755458 -0.0901363 -0.348 -0.573107 0 0.819481 0 26 254
0.0761506 -0.0898772 -0.347 -0.574171 0 0.818735 0 25 255
0.0769725 -0.0898772 -0.347 0 0 1 0 25 255
0.0777944 -0.0898772 -0.347 -0.627275 -0.313635 0.712853 0 25 255
0.0783898 -0.0896182 -0.346 -0.382402 -0.191199 0.903998 0 23 255
0.0792094 -0.0896182 -0.346 0 0 1 0 23 255
0.0800289 -0.0896182 -0.346 0 0 1 0 23 255
0.0808485 -0.0896182 -0.346 -0.176752 -0.353503 0.918583 0 23 255
0.081668 -0.0896182 -0.346 -0.282934 -0.565867 0.774431 0 23 255
0.0822492 -0.0893592 -0.345 -0.283081 -0.566161 0.774162 0 21 255
0.0830664 -0.0893592 -0.345 0 -0.46671 0.884411 0 21 255
0.0838835 -0.0893592 -0.345 -0.17716 -0.354321 0.918189 0 21 255
0.0847007 -0.0893592 -0.345 0 0 1 0 21 255
0.0855179 -0.0893592 -0.345 0.178685 -0.178685 0.967545 0 21 255
0.0863351 -0.0893592 -0.345 0 -0.46671 0.884411 0 21 255
0.0871523 -0.0893592 -0.345 0 -0.466709 0.884411 0 21 255
0.0879695 -0.0893592 -0.345 0 -0.46671 0.88441 0 21 255
0.0887867 -0.0893592 -0.345 0 -0.46671 0.884411 0 21 255
0.0896038 -0.0893592 -0.345 0.303674 -0.303673 0.903086 0 21 255
0.0906831 -0.0896182 -0.346 0.303477 -0.303475 0.903219 0 23 255
0.0915027 -0.0896182 -0.346 0 -0.466406 0.884571 0 23 255
0.0923222 -0.0896182 -0.346 0.177957 -0.177957 0.967813 0 23 255
0.0931418 -0.0896182 -0.346 0 0 1 0 23 255
0.0939613 -0.0896182 -0.346 0 0 1 0 23 255
0.0947809 -0.0896182 -0.346 0 0 1 0 23 255
0.0956004 -0.0896182 -0.346 0 0 1 0 23 255
0.09642 -0.0896182 -0.346 0 0 1 0 23 255
0.0972395 -0.0896182 -0.346 0 0 1 0 23 255
0.0980591 -0.0896182 -0.346 0 0 1 0 23 255
0.0988786 -0.0896182 -0.346 0 0 1 0 23 255
0.0996982 -0.0896182 -0.346 0 0 1 0 23 255
0.100518 -0.0896182 -0.346 0 0 1 0 23 255
0.101337 -0.0896182 -0.346 0 0 1 0 23 255
0.102157 -0.0896182 -0.346 0 0 1 0 23 255
0.102976 -0.0896182 -0.346 0 0 1 0 23 255
0.103796 -0.0896182 -0.346 0 0 1 0 23 255
0.104616 -0.0896182 -0.346 0 0 1 0 23 255
0.105435 -0.0896182 -0.346 0 0 1 0 23 255
0.106255 -0.0896182 -0.346 0 0 1 0 23 255
0.107074 -0.0896182 -0.346 -0.178953 -0.357903 0.916451 0 23 255
0.107894 -0.0896182 -0.346 0 -0.466405 0.884571 0 23 255
0.108713 -0.0896182 -0.346 -0.287834 -0.575669 0.765347 0 23 255
0.109216 -0.0893592 -0.345 -0.287987 -0.57597 0.765064 0 21 255
0.110033 -0.0893592 -0.345 0 -0.466711 0.88441 0 21 255
0.110851 -0.0893592 -0.345 0 -0.46671 0.884411 0 21 255
0.111668 -0.0893592 -0.345 0 -0.466709 0.884411 0 21 255
0.112485 -0.0893592 -0.345 0 -0.46671 0.88441 0 21 255
0.113302 -0.0893592 -0.345 0 -0.46671 0.884411 0 21 255
0.114119 -0.0893592 -0.345 0 -0.46671 0.884411 0 21 255
0.114937 -0.0893592 -0.345 -0.17979 -0.359578 0.91563 0 21 255
0.115754 -0.0893592 -0.345 0 0 1 0 21 255
0.116571 -0.0893592 -0.345 0 0 1 0 21 255
0.117388 -0.0893592 -0.345 0.175876 -0.175873 0.968574 0 21 255
0.118205 -0.0893592 -0.345 0 -0.466711 0.88441 0 21 255
0.119022 -0.0893592 -0.345 0.296716 -0.296716 0.9077 0 21 255
0.120187 -0.0896182 -0.346 0.449925 0 0.893066 0 23 255
0.121007 -0.0896182 -0.346 0 0 1 0 23 255
0.121826 -0.0896182 -0.346 0 0 1 0 23 255
0.122646 -0.0896182 -0.346 0.175027 -0.175027 0.968881 0 23 255
0.123465 -0.0896182 -0.346 0.447371 -1.03233e-08 0.894349 0 23 255
0.124644 -0.0898772 -0.347 0.342938 0.171467 0.923576 0 25 255
0.125466 -0.0898772 -0.347 0 0 1 0 25 255
0.126288 -0.0898772 -0.347 0 0 1 0 25 255
0.12711 -0.0898772 -0.347 0 0 1 0 25 255
0.127932 -0.0898772 -0.347 0 0 1 0 25 255
0.128754 -0.0898772 -0.347 0 0 1 0 25 255
0.129576 -0.0898772 -0.347 0 0 1 0 25 255
0.130397 -0.0898772 -0.347 -0.619696 0 0.784842 0 25 255
0.130841 -0.0896182 -0.346 -0.433108 0.433108 0.790465 0 23 255
0.131661 -0.0896182 -0.346 -0.221726 0.221728 0.949565 0 23 255
0.13248 -0.0896182 -0.346 0 0 1 0 23 255
0.1333 -0.0896182 -0.346 0 0 1 0 23 255
0.134119 -0.0896182 -0.346 0 0 1 0 23 255
0.134939 -0.0896182 -0.346 0 0 1 0 23 255
0.135759 -0.0896182 -0.346 0 0 1 0 23 255
0.136578 -0.0896182 -0.346 0 0 1 0 23 255
0.137398 -0.0896182 -0.346 0 0 1 0 23 255
0.138217 -0.0896182 -0.346 0 0 1 0 23 255
0.139037 -0.0896182 -0.346 0.173632 -0.17363 0.969384 0 23 255
0.139856 -0.0896182 -0.346 0 -0.465801 0.88489 0 23 255
0.140676 -0.0896182 -0.346 0.291318 -0.291315 0.911191 0 23 255
0.141904 -0.0898772 -0.347 0.438211 0 0.898872 0 25 255
0.142726 -0.0898772 -0.347 0 0 1 0 25 255
0.143548 -0.0898772 -0.347 0 0 1 0 25 255
0.14437 -0.0898772 -0.347 0 0 1 0 25 255
0.145192 -0.0898772 -0.347 0 0 1 0 25 255
0.146014 -0.0898772 -0.347 0 0 1 0 25 255
0.146836 -0.0898772 -0.347 0 0 1 0 25 255
0.147658 -0.0898772 -0.347 0 0 1 0 25 255
0.14848 -0.0898772 -0.347 0 0 1 0 25 255
0.149302 -0.0898772 -0.347 0 0 1 0 25 255
0.150124 -0.0898772 -0.347 0 0 1 0 25 255
0.150945 -0.0898772 -0.347 0 0 1 0 25 255
0.151767 -0.0898772 -0.347 0 0 1 0 25 255
0.152589 -0.0898772 -0.347 0 0 1 0 25 255
-0.0249136 -0.0969723 -0.371 -0.727343 0 0.686275 0 229 255
-0.02397 -0.0967109 -0.37 -0.727912 0 0.68567 0 215 255
-0.0230312 -0.0964495 -0.369 -0.729628 0 0.683844 0 202 255
-0.0220971 -0.0961882 -0.368 -0.521538 -0.173688 0.835362 0 191 255
-0.0212255 -0.0961882 -0.368 -0.400102 -0.400101 0.824523 0 191 255
-0.0202985 -0.0959268 -0.367 -0.400625 -0.400622 0.824016 0 181 255
-0.0194292 -0.0959268 -0.367 0 0 1 0 181 255
-0.0185599 -0.0959268 -0.367 0 0 1 0 181 255
-0.0176906 -0.0959268 -0.367 0 0 1 0 181 255
-0.0168213 -0.0959268 -0.367 0.508285 0 0.861189 0 181 255
-0.0159955 -0.0961882 -0.368 0.316148 -0.316148 0.894483 0 191 255
-0.0151238 -0.0961882 -0.368 0.177744 -0.177743 0.967892 0 191 255
-0.0142522 -0.0961882 -0.368 0 0 1 0 191 255
-0.0133805 -0.0961882 -0.368 0.177305 -0.177305 0.968053 0 191 255
-0.0125088 -0.0961882 -0.368 0.314666 -0.314665 0.895528 0 191 255
-0.0116688 -0.0964495 -0.369 1.93764e-08 -0.446087 0.89499 0 202 255
-0.0107655 -0.0961882 -0.368 -0.257747 -0.515493 0.81721 0 191 255
-0.00989384 -0.0961882 -0.368 0 -0.446087 0.89499 0 191 255
-0.00902217 -0.0961882 -0.368 -0.161307 -0.322613 0.932685 0 191 255
-0.00815051 -0.0961882 -0.368 0 0 1 0 191 255
-0.00727885 -0.0961882 -0.368 -0.161656 -0.323311 0.932383 0 191 255
-0.00640718 -0.0961882 -0.368 -0.258783 -0.517564 0.815573 0 191 255
-0.00552048 -0.0959268 -0.367 -0.258912 -0.517823 0.815367 0 181 255
-0.00465118 -0.0959268 -0.367 -0.161946 -0.323889 0.932132 0 181 255
-0.00378189 -0.0959268 -0.367 0 0 1 0 181 255
-0.00291259 -0.0959268 -0.367 0.17688 -0.176878 0.968209 0 181 255
-0.0020433 -0.0959268 -0.367 0 -0.44694 0.894564 0 181 255
-0.001174 -0.0959268 -0.367 0.312584 -0.312584 0.896985 0 181 255
-0.00030554 -0.0961882 -0.368 0.312377 -0.312376 0.89713 0 191 255
0.000566124 -0.0961882 -0.368 0 -0.446658 0.894705 0 191 255
0.00143779 -0.0961882 -0.368 0.133224 -0.532543 0.835853 0 191 255
0.00230945 -0.0961882 -0.368 0.132981 -0.532271 0.836065 0 191 255
0.00318111 -0.0961882 -0.368 0 -0.446087 0.89499 0 191 255
0.00405278 -0.0961882 -0.368 0.31072 -0.310719 0.89828 0 191 255
0.00493782 -0.0964495 -0.369 0.310514 -0.310513 0.898422 0 202 255
0.00581185 -0.0964495 -0.369 0 -0.445806 0.89513 0 202 255
0.00668589 -0.0964495 -0.369 0.309797 -0.309796 0.898917 0 202 255
0.00755992 -0.0964495 -0.369 0 -0.445243 0.89541 0 202 255
0.00843395 -0.0964495 -0.369 0 -0.445243 0.89541 0 202 255
0.00930798 -0.0964495 -0.369 0 -0.445243 0.89541 0 202 255
0.010182 -0.0964495 -0.369 0.308677 -0.308675 0.899688 0 202 255
0.011086 -0.0967109 -0.37 0.308474 -0.308472 0.899827 0 215 255
0.0119624 -0.0967109 -0.37 0 -0.444963 0.895549 0 215 255
0.0128388 -0.0967109 -0.37 0 -0.573661 0.819093 0 215 255
0.0137152 -0.0967109 -0.37 0 -0.660934 0.750444 0 215 255
0.0664654 -0.0995861 -0.381 0 0 0 78 255 176
0.0670142 -0.0990634 -0.379 -0.998978 0 0.0451958 62 255 192
0.0671952 -0.0980178 -0.375 -0.980095 0.195288 0.035738 11 255 243
0.0675388 -0.0972337 -0.372 -0.990437 0.109654 0.0837297 0 239 255
0.068052 -0.0967109 -0.37 -0.903327 0.387095 0.184816 0 215 255
0.0685559 -0.0961882 -0.368 -0.867285 0.496854 0.0308805 0 191 255
0.0690502 -0.0956654 -0.366 -0.812603 0.582792 -0.00541359 0 172 255
0.069344 -0.0948813 -0.363 -0.873628 0.485021 0.0390881 0 132 255
0.0698171 -0.0943585 -0.361 -0.86763 0.496673 0.0231082 0 109 255
0.0714115 -0.0920061 -0.352 -0.846662 0 0.532131 0 33 255
0.07204 -0.0917447 -0.351 -0.84726 0 0.531178 0 31 255
0.0726638 -0.0914833 -0.35 -0.660605 0.219998 0.717776 0 29 255
0.0734929 -0.0914833 -0.35 -0.406602 0.4066 0.818139 0 29 255
0.0741095 -0.0912219 -0.349 -0.852067 0 0.523432 0 28 255
0.0747215 -0.0909606 -0.348 -0.571611 0 0.820525 0 26 254
0.0755458 -0.0909606 -0.348 -0.573107 0 0.819481 0 26 254
0.0761506 -0.0906992 -0.347 -0.574171 0 0.818735 0 25 255
0.0769725 -0.0906992 -0.347 0 0 1 0 25 255
0.0777944 -0.0906992 -0.347 -0.576297 0 0.81724 0 25 255
0.0783898 -0.0904378 -0.346 -0.577369 0 0.816484 0 23 255
0.0792094 -0.0904378 -0.346 0 0 1 0 23 255
0.0800289 -0.0904378 -0.346 0 0 1 0 23 255
0.0808485 -0.0904378 -0.346 0 0 1 0 23 255
0.081668 -0.0904378 -0.346 0 0 1 0 23 255
0.0824876 -0.0904378 -0.346 -0.176751 -0.353503 0.918583 0 23 255
0.0833071 -0.0904378 -0.346 0 -0.46595 0.884811 0 23 255
0.0841267 -0.0904378 -0.346 -0.283081 -0.566161 0.774162 0 23 255
0.0847007 -0.0901764 -0.345 -0.283228 -0.566455 0.773893 0 21 255
0.0855179 -0.0901764 -0.345 0.304465 -0.304463 0.902554 0 21 255
0.0865853 -0.0904378 -0.346 0.304265 -0.304265 0.902688 0 23 255
0.0874049 -0.0904378 -0.346 0 -0.465951 0.884811 0 23 255
0.0882244 -0.0904378 -0.346 0 -0.46595 0.884811 0 23 255
0.089044 -0.0904378 -0.346 0 -0.46595 0.884811 0 23 255
0.0898636 -0.0904378 -0.346 0 -0.465951 0.884811 0 23 255
0.0906831 -0.0904378 -0.346 0.178029 -0.178028 0.967787 0 23 255
0.0915027 -0.0904378 -0.346 0 0 1 0 23 255
0.0923222 -0.0904378 -0.346 0 0 1 0 23 255
0.0931418 -0.0904378 -0.346 0 0 1 0 23 255
0.0939613 -0.0904378 -0.346 0 0 1 0 23 255
0.0947809 -0.0904378 -0.346 0 0 1 0 23 255
0.0956004 -0.0904378 -0.346 0 0 1 0 23 255
0.09642 -0.0904378 -0.346 0 0 1 0 23 255
0.0972395 -0.0904378 -0.346 0.177161 -0.177161 0.968105 0 23 255
0.0980591 -0.0904378 -0.346 0 -0.465345 0.88513 0 23 255
0.0988786 -0.0904378 -0.346 0 -0.465346 0.885129 0 23 255
0.0996982 -0.0904378 -0.346 -0.177914 -0.355829 0.91746 0 23 255
0.100518 -0.0904378 -0.346 0 0 1 0 23 255
0.101337 -0.0904378 -0.346 0 0 1 0 23 255
0.102157 -0.0904378 -0.346 0 0 1 0 23 255
0.102976 -0.0904378 -0.346 0 0 1 0 23 255
0.103796 -0.0904378 -0.346 0 0 1 0 23 255
0.104616 -0.0904378 -0.346 0 0 1 0 23 255
0.105435 -0.0904378 -0.346 0 0 1 0 23 255
0.106255 -0.0904378 -0.346 0 0 1 0 23 255
0.107074 -0.0904378 -0.346 0 0 1 0 23 255
0.107894 -0.0904378 -0.346 0 0 1 0 23 255
0.108713 -0.0904378 -0.346 0 0 1 0 23 255
0.109533 -0.0904378 -0.346 -0.179021 -0.358041 0.916383 0 23 255
0.110352 -0.0904378 -0.346 0 -0.465949 0.884812 0 23 255
0.111172 -0.0904378 -0.346 0 -0.46595 0.884811 0 23 255
0.111991 -0.0904378 -0.346 0 -0.465951 0.884811 0 23 255
0.112811 -0.0904378 -0.346 0 -0.46595 0.884811 0 23 255
0.113631 -0.0904378 -0.346 0 -0.46595 0.884811 0 23 255
0.11445 -0.0904378 -0.346 0 -0.46595 0.884811 0 23 255
0.11527 -0.0904378 -0.346 -0.288739 -0.577475 0.763644 0 23 255
0.115754 -0.0901764 -0.345 -0.28889 -0.577777 0.763358 0 21 255
0.116571 -0.0901764 -0.345 0 -0.466254 0.884651 0 21 255
0.117388 -0.0901764 -0.345 0.296907 -0.296905 0.907576 0 21 255
0.118548 -0.0904378 -0.346 0.296718 -0.296715 0.9077 0 23 255
0.119367 -0.0904378 -0.346 0 -0.46595 0.884811 0 23 255
0.120187 -0.0904378 -0.346 0.175449 -0.175449 0.968728 0 23 255
0.121007 -0.0904378 -0.346 0 0 1 0 23 255
0.121826 -0.0904378 -0.346 0.175028 -0.175028 0.968881 0 23 255
0.122646 -0.0904378 -0.346 0.295209 -0.295208 0.908682 0 23 255
0.123822 -0.0906992 -0.347 0.295022 -0.295021 0.908804 0 25 255
0.124644 -0.0906992 -0.347 0.174677 -0.174675 0.969008 0 25 255
0.125466 -0.0906992 -0.347 0 0 1 0 25 255
0.126288 -0.0906992 -0.347 0 0 1 0 25 255
0.12711 -0.0906992 -0.347 0 0 1 0 25 255
0.127932 -0.0906992 -0.347 0 0 1 0 25 255
0.128754 -0.0906992 -0.347 0 0 1 0 25 255
0.129576 -0.0906992 -0.347 0 0 1 0 25 255
0.130397 -0.0906992 -0.347 -0.619696 0 0.784842 0 25 255
0.130841 -0.0904378 -0.346 -0.620883 0 0.783903 0 23 255
0.131661 -0.0904378 -0.346 0 0 1 0 23 255
0.13248 -0.0904378 -0.346 0 0 1 0 23 255
0.1333 -0.0904378 -0.346 0 0 1 0 23 255
0.134119 -0.0904378 -0.346 0 0 1 0 23 255
0.134939 -0.0904378 -0.346 0 0 1 0 23 255
0.135759 -0.0904378 -0.346 0 0 1 0 23 255
0.136578 -0.0904378 -0.346 0 0 1 0 23 255
0.137398 -0.0904378 -0.346 0 0 1 0 23 255
0.138217 -0.0904378 -0.346 0.173633 -0.173634 0.969383 0 23 255
0.139037 -0.0904378 -0.346 0.291499 -0.291499 0.911074 0 23 255
0.14026 -0.0906992 -0.347 0.291316 -0.291316 0.911192 0 25 255
0.141082 -0.0906992 -0.347 0 -0.465045 0.885287 0 25 255
0.141904 -0.0906992 -0.347 0.173219 -0.173214 0.969532 0 25 255
0.142726 -0.0906992 -0.347 0 0 1 0 25 255
0.143548 -0.0906992 -0.347 0 0 1 0 25 255
0.14437 -0.0906992 -0.347 0 0 1 0 25 255
0.145192 -0.0906992 -0.347 0 0 1 0 25 255
0.146014 -0.0906992 -0.347 0 0 1 0 25 255
0.146836 -0.0906992 -0.347 0 0 1 0 25 255
0.147658 -0.0906992 -0.347 0 0 1 0 25 255
0.14848 -0.0906992 -0.347 0 0 1 0 25 255
0.149302 -0.0906992 -0.347 0 0 1 0 25 255
0.150124 -0.0906992 -0.347 0.172263 -0.172265 0.969871 0 25 255
0.150945 -0.0906992 -0.347 -0.181848 -0.363695 0.913596 0 25 255
0.151767 -0.0906992 -0.347 0 0 1 0 25 255
0.152589 -0.0906992 -0.347 0 0 1 0 25 255
-0.0249807 -0.0981148 -0.372 0 0 0 0 239 255
-0.0221572 -0.0973236 -0.369 -0.540017 -0.540016 0.645573 0 202 255
-0.0212255 -0.0970598 -0.368 -0.306618 -0.306617 0.901094 0 191 255
-0.0203538 -0.0970598 -0.368 -0.589789 -0.294895 0.751788 0 191 255
-0.0194292 -0.0967961 -0.367 -0.332188 -0.166094 0.928474 0 181 255
-0.0185599 -0.0967961 -0.367 0 0 1 0 181 255
-0.0176906 -0.0967961 -0.367 0 0 1 0 181 255
-0.0168213 -0.0967961 -0.367 0.363312 0 0.931668 0 181 255
-0.0159955 -0.0970598 -0.368 0.620983 0 0.783824 0 191 255
-0.0151238 -0.0970598 -0.368 0 0 1 0 191 255
-0.0142522 -0.0970598 -0.368 0.177305 -0.177306 0.968053 0 191 255
-0.0133805 -0.0970598 -0.368 0.314666 -0.314666 0.895528 0 191 255
-0.0125428 -0.0973236 -0.369 0.314456 -0.314456 0.895676 0 202 255
-0.0116688 -0.0973236 -0.369 0.176947 -0.176946 0.968184 0 202 255
-0.0107948 -0.0973236 -0.369 -0.160963 -0.321925 0.932982 0 202 255
-0.00992072 -0.0973236 -0.369 0 -0.445386 0.895339 0 202 255
-0.00904669 -0.0973236 -0.369 -0.257747 -0.515495 0.81721 0 202 255
-0.00815051 -0.0970598 -0.368 -0.257876 -0.515752 0.817007 0 191 255
-0.00727885 -0.0970598 -0.368 -0.161306 -0.322614 0.932685 0 191 255
-0.00640718 -0.0970598 -0.368 0 0 1 0 191 255
-0.00553552 -0.0970598 -0.368 -0.161656 -0.323312 0.932382 0 191 255
-0.00466386 -0.0970598 -0.368 -0.258784 -0.517566 0.815571 0 191 255
-0.00378189 -0.0967961 -0.367 -0.258913 -0.517825 0.815366 0 181 255
-0.00291259 -0.0967961 -0.367 0.312793 -0.312792 0.89684 0 181 255
-0.00204887 -0.0970598 -0.368 0.312585 -0.312584 0.896985 0 191 255
-0.0011772 -0.0970598 -0.368 0 -0.446237 0.894915 0 191 255
-0.00030554 -0.0970598 -0.368 0.311856 -0.311856 0.897492 0 191 255
0.000566124 -0.0970598 -0.368 0 -0.445667 0.895199 0 191 255
0.00143779 -0.0970598 -0.368 0.311131 -0.311131 0.897995 0 191 255
0.00231573 -0.0973236 -0.369 0.310925 -0.310925 0.898138 0 202 255
0.00318976 -0.0973236 -0.369 0 -0.445386 0.895339 0 202 255
0.00406379 -0.0973236 -0.369 0 -0.445386 0.895339 0 202 255
0.00493782 -0.0973236 -0.369 0.310002 -0.310002 0.898776 0 202 255
0.00581185 -0.0973236 -0.369 0 -0.444826 0.895617 0 202 255
0.00668589 -0.0973236 -0.369 0.309286 -0.309288 0.899268 0 202 255
0.0075804 -0.0975873 -0.37 0.309083 -0.309084 0.899408 0 215 255
0.0084568 -0.0975873 -0.37 0 -0.444546 0.895756 0 215 255
0.00933321 -0.0975873 -0.37 0 -0.444546 0.895756 0 215 255
0.0102096 -0.0975873 -0.37 0 -0.444546 0.895756 0 215 255
0.011086 -0.0975873 -0.37 0.307971 -0.307972 0.900171 0 215 255
0.0119624 -0.0975873 -0.37 0 -0.25628 0.966603 0 215 255
0.0128388 -0.0975873 -0.37 0 0 1 0 215 255
0.0678681 -0.0973236 -0.369 -0.890752 0.44176 0.106816 0 202 255
0.0683696 -0.0967961 -0.367 -0.945615 0.314566 0.0828307 0 181 255
0.0686729 -0.0960048 -0.364 -0.927423 0.37097 0.0476272 0 145 255
0.069153 -0.0954773 -0.362 -0.879133 0.473357 0.0553036 0 119 255
0.0696237 -0.0949498 -0.36 -0.890101 0.446284 0.0924644 0 99 255
0.0726638 -0.0923123 -0.35 -0.850267 0 0.526352 0 29 255
0.0732829 -0.0920486 -0.349 -0.406921 0.406925 0.817818 0 28 255
0.0741095 -0.0920486 -0.349 -0.709451 0.177494 0.682037 0 28 255
0.0747215 -0.0917848 -0.348 -0.571611 0 0.820525 0 26 254
0.0755458 -0.0917848 -0.348 -0.573106 0 0.819481 0 26 254
0.0761506 -0.0915211 -0.347 -0.574172 0 0.818735 0 25 255
0.0769725 -0.0915211 -0.347 0 0 1 0 25 255
0.0777944 -0.0915211 -0.347 -0.576296 0 0.817241 0 25 255
0.0783898 -0.0912573 -0.346 -0.57737 0 0.816483 0 23 255
0.0792094 -0.0912573 -0.346 0 0 1 0 23 255
0.0800289 -0.0912573 -0.346 0 0 1 0 23 255
0.0808485 -0.0912573 -0.346 0 0 1 0 23 255
0.081668 -0.0912573 -0.346 0 0 1 0 23 255
0.0824876 -0.0912573 -0.346 0 0 1 0 23 255
0.0833071 -0.0912573 -0.346 0 0 1 0 23 255
0.0841267 -0.0912573 -0.346 0 0 1 0 23 255
0.0849462 -0.0912573 -0.346 -0.176822 -0.353641 0.918516 0 23 255
0.0857658 -0.0912573 -0.346 0 -0.465498 0.885049 0 23 255
0.0865853 -0.0912573 -0.346 0.178321 -0.178321 0.967679 0 23 255
0.0874049 -0.0912573 -0.346 0 0 1 0 23 255
0.0882244 -0.0912573 -0.346 0 0 1 0 23 255
0.089044 -0.0912573 -0.346 0 0 1 0 23 255
0.0898636 -0.0912573 -0.346 0 0 1 0 23 255
0.0906831 -0.0912573 -0.346 0 0 1 0 23 255
0.0915027 -0.0912573 -0.346 0 0 1 0 23 255
0.0923222 -0.0912573 -0.346 0 0 1 0 23 255
0.0931418 -0.0912573 -0.346 0 0 1 0 23 255
0.0939613 -0.0912573 -0.346 0 0 1 0 23 255
0.0947809 -0.0912573 -0.346 0 0 1 0 23 255
0.0956004 -0.0912573 -0.346 0.177232 -0.177234 0.968079 0 23 255
0.09642 -0.0912573 -0.346 0 -0.464895 0.885366 0 23 255
0.0972395 -0.0912573 -0.346 0.300934 -0.300935 0.904918 0 23 255
0.0983425 -0.0915211 -0.347 0.30074 -0.300742 0.905047 0 25 255
0.0991644 -0.0915211 -0.347 0 -0.464591 0.885525 0 25 255
0.0999863 -0.0915211 -0.347 -0.285147 -0.5703 0.770356 0 25 255
0.100518 -0.0912573 -0.346 -0.285296 -0.570597 0.770081 0 23 255
0.101337 -0.0912573 -0.346 0 -0.464893 0.885367 0 23 255
0.102157 -0.0912573 -0.346 0 -0.464895 0.885366 0 23 255
0.102976 -0.0912573 -0.346 0 -0.464894 0.885366 0 23 255
0.103796 -0.0912573 -0.346 -0.178121 -0.356245 0.917258 0 23 255
0.104616 -0.0912573 -0.346 0.176443 -0.176446 0.968367 0 23 255
0.105435 -0.0912573 -0.346 -0.178257 -0.35652 0.917125 0 23 255
0.106255 -0.0912573 -0.346 0 0 1 0 23 255
0.107074 -0.0912573 -0.346 0.17623 -0.17623 0.968445 0 23 255
0.107894 -0.0912573 -0.346 0 -0.464895 0.885366 0 23 255
0.108713 -0.0912573 -0.346 -0.178533 -0.357073 0.916856 0 23 255
0.109533 -0.0912573 -0.346 0 0 1 0 23 255
0.110352 -0.0912573 -0.346 0 0 1 0 23 255
0.111172 -0.0912573 -0.346 0 0 1 0 23 255
0.111991 -0.0912573 -0.346 0 0 1 0 23 255
0.112811 -0.0912573 -0.346 0 0 1 0 23 255
0.113631 -0.0912573 -0.346 0 0 1 0 23 255
0.11445 -0.0912573 -0.346 0 0 1 0 23 255
0.11527 -0.0912573 -0.346 0 0 1 0 23 255
0.116089 -0.0912573 -0.346 -0.179441 -0.358881 0.915972 0 23 255
0.116909 -0.0912573 -0.346 0 -0.465498 0.885049 0 23 255
0.117728 -0.0912573 -0.346 0 -0.465499 0.885048 0 23 255
0.118548 -0.0912573 -0.346 0.175523 -0.17552 0.968702 0 23 255
0.119367 -0.0912573 -0.346 0 0 1 0 23 255
0.120187 -0.0912573 -0.346 0 0 1 0 23 255
0.121007 -0.0912573 -0.346 0.175027 -0.175027 0.968881 0 23 255
0.121826 -0.0912573 -0.346 0.29521 -0.29521 0.908682 0 23 255
0.123 -0.0915211 -0.347 0.295021 -0.295023 0.908804 0 25 255
0.123822 -0.0915211 -0.347 0.174679 -0.174677 0.969007 0 25 255
0.124644 -0.0915211 -0.347 0 0 1 0 25 255
0.125466 -0.0915211 -0.347 0 0 1 0 25 255
0.126288 -0.0915211 -0.347 0 0 1 0 25 255
0.12711 -0.0915211 -0.347 0 0 1 0 25 255
0.127932 -0.0915211 -0.347 0 0 1 0 25 255
0.128754 -0.0915211 -0.347 0 0 1 0 25 255
0.129576 -0.0915211 -0.347 0 0 1 0 25 255
0.130397 -0.0915211 -0.347 -0.402382 -0.201191 0.893091 0 25 255
0.130841 -0.0912573 -0.346 -0.671166 -0.335586 0.660998 0 23 255
0.131661 -0.0912573 -0.346 0 0 1 0 23 255
0.13248 -0.0912573 -0.346 0 0 1 0 23 255
0.1333 -0.0912573 -0.346 0 0 1 0 23 255
0.134119 -0.0912573 -0.346 0 0 1 0 23 255
0.134939 -0.0912573 -0.346 0 0 1 0 23 255
0.135759 -0.0912573 -0.346 0 0 1 0 23 255
0.136578 -0.0912573 -0.346 0 0 1 0 23 255
0.137398 -0.0912573 -0.346 0.173632 -0.17363 0.969384 0 23 255
0.138217 -0.0912573 -0.346 0.291501 -0.291501 0.911073 0 23 255
0.139439 -0.0915211 -0.347 0.291315 -0.291318 0.911191 0 25 255
0.14026 -0.0915211 -0.347 0.173287 -0.173286 0.969507 0 25 255
0.141082 -0.0915211 -0.347 0 0 1 0 25 255
0.141904 -0.0915211 -0.347 0 0 1 0 25 255
0.142726 -0.0915211 -0.347 0 0 1 0 25 255
0.143548 -0.0915211 -0.347 0 0 1 0 25 255
0.14437 -0.0915211 -0.347 0 0 1 0 25 255
0.145192 -0.0915211 -0.347 0 0 1 0 25 255
0.146014 -0.0915211 -0.347 0 0 1 0 25 255
0.146836 -0.0915211 -0.347 0 0 1 0 25 255
0.147658 -0.0915211 -0.347 0 0 1 0 25 255
0.14848 -0.0915211 -0.347 0.172328 -0.172333 0.969848 0 25 255
0.149302 -0.0915211 -0.347 0 -0.463995 0.885838 0 25 255
0.150124 -0.0915211 -0.347 0.288419 -0.288418 0.913033 0 25 255
0.15138 -0.0917848 -0.348 0 -0.463996 0.885837 0 26 254
0.151767 -0.0915211 -0.347 -0.489931 -0.489931 0.721065 0 25 255
0.152589 -0.0915211 -0.347 0 0 1 0 25 255
-0.0203538 -0.0979315 -0.368 -0.73425 0 0.678879 0 191 255
-0.0194292 -0.0976654 -0.367 -0.592776 0 0.805367 0 181 255
-0.0185599 -0.0976654 -0.367 0 0 1 0 181 255
-0.0151238 -0.0979315 -0.368 0 0 1 0 191 255
-0.0142522 -0.0979315 -0.368 0.361563 0 0.932348 0 191 255
-0.0134168 -0.0981976 -0.369 0.26075 -0.522213 0.811975 0 202 255
-0.0125428 -0.0981976 -0.369 0.314351 -0.314353 0.895749 0 202 255
-0.0116688 -0.0981976 -0.369 0 0 1 0 202 255
-0.0107948 -0.0981976 -0.369 0 0 1 0 202 255
-0.00992072 -0.0981976 -0.369 0 0 1 0 202 255
-0.00904669 -0.0981976 -0.369 0 0 1 0 202 255
-0.00817266 -0.0981976 -0.369 -0.161019 -0.32204 0.932933 0 202 255
-0.00729863 -0.0981976 -0.369 -0.257747 -0.515494 0.81721 0 202 255
-0.00640718 -0.0979315 -0.368 -0.257876 -0.515752 0.817007 0 191 255
-0.00553552 -0.0979315 -0.368 0 -0.445246 0.895408 0 191 255
-0.00466386 -0.0979315 -0.368 -0.161365 -0.322729 0.932635 0 191 255
-0.00379219 -0.0979315 -0.368 -3.15722e-06 -0.445533 0.895266 0 191 255
-0.00292053 -0.0979315 -0.368 0 -0.660165 0.751121 0 191 255
-0.00204887 -0.0979315 -0.368 0.132875 -0.531851 0.836348 0 191 255
-0.0011772 -0.0979315 -0.368 0 -0.445246 0.895408 0 191 255
-0.00030554 -0.0979315 -0.368 0.311337 -0.311337 0.897852 0 191 255
0.000567662 -0.0981976 -0.369 0.311131 -0.311131 0.897995 0 202 255
0.00144169 -0.0981976 -0.369 0.132735 -0.530578 0.837179 0 202 255
0.00231573 -0.0981976 -0.369 0.132488 -0.530312 0.837387 0 202 255
0.00318976 -0.0981976 -0.369 0 -0.444406 0.895826 0 202 255
0.00406379 -0.0981976 -0.369 0 -0.444406 0.895826 0 202 255
0.00493782 -0.0981976 -0.369 0.309491 -0.309491 0.899128 0 202 255
0.0058276 -0.0984637 -0.37 0.309287 -0.309287 0.899268 0 215 255
0.006704 -0.0984637 -0.37 0 -0.444127 0.895964 0 215 255
0.0075804 -0.0984637 -0.37 0.174885 -0.174887 0.968932 0 215 255
0.0084568 -0.0984637 -0.37 0 0 1 0 215 255
0.00933321 -0.0984637 -0.37 0.174472 -0.174472 0.969082 0 215 255
0.0102096 -0.0984637 -0.37 0 -0.443578 0.896236 0 215 255
0.011086 -0.0984637 -0.37 0.307469 -0.30747 0.900514 0 215 255
0.0119947 -0.0987298 -0.371 0.539372 -0.269323 0.797837 0 229 255
0.0137523 -0.0987298 -0.371 0 0 0 0 229 255
0.0681833 -0.0973993 -0.366 -0.891346 0.442027 0.100572 0 172 255
0.0686729 -0.096867 -0.364 -0.97614 0.208658 0.0600977 0 145 255
0.068962 -0.0960687 -0.361 -0.939024 0.335423 0.0756629 0 109 255
0.0694303 -0.0955364 -0.359 -0.890272 0.446374 0.0903672 0 86 255
0.0726638 -0.0931414 -0.35 -0.697185 0.348097 0.626708 0 29 255
0.0732829 -0.0928752 -0.349 -0.569088 0 0.822277 0 28 255
0.0741095 -0.0928752 -0.349 -0.570556 0 0.821258 0 28 255
0.0747215 -0.0926091 -0.348 -0.571609 0 0.820526 0 26 254
0.0755458 -0.0926091 -0.348 -0.573107 0 0.81948 0 26 254
0.0761506 -0.092343 -0.347 -0.57417 0 0.818736 0 25 255
0.0769725 -0.092343 -0.347 0 0 1 0 25 255
0.0777944 -0.092343 -0.347 -0.381309 -0.190655 0.904574 0 25 255
0.0783898 -0.0920769 -0.346 -0.62694 -0.313471 0.71322 0 23 255
0.0792094 -0.0920769 -0.346 0 0 1 0 23 255
0.0800289 -0.0920769 -0.346 0 0 1 0 23 255
0.0808485 -0.0920769 -0.346 0 0 1 0 23 255
0.081668 -0.0920769 -0.346 0 0 1 0 23 255
0.0824876 -0.0920769 -0.346 0 0 1 0 23 255
0.0833071 -0.0920769 -0.346 0 0 1 0 23 255
0.0841267 -0.0920769 -0.346 0 0 1 0 23 255
0.0849462 -0.0920769 -0.346 0 0 1 0 23 255
0.0857658 -0.0920769 -0.346 0 0 1 0 23 255
0.0865853 -0.0920769 -0.346 0 0 1 0 23 255
0.0874049 -0.0920769 -0.346 0 0 1 0 23 255
0.0882244 -0.0920769 -0.346 0 0 1 0 23 255
0.089044 -0.0920769 -0.346 0 0 1 0 23 255
0.0898636 -0.0920769 -0.346 0 0 1 0 23 255
0.0906831 -0.0920769 -0.346 0 0 1 0 23 255
0.0915027 -0.0920769 -0.346 0 0 1 0 23 255
0.0923222 -0.0920769 -0.346 0.177452 -0.177449 0.967999 0 23 255
0.0931418 -0.0920769 -0.346 0 -0.464442 0.885603 0 23 255
0.0939613 -0.0920769 -0.346 0 -0.464441 0.885604 0 23 255
0.0947809 -0.0920769 -0.346 0 -0.464441 0.885604 0 23 255
0.0956004 -0.0920769 -0.346 0.301128 -0.30113 0.904789 0 23 255
0.0966986 -0.092343 -0.347 0.300934 -0.300935 0.904918 0 25 255
0.0975206 -0.092343 -0.347 0 -0.46414 0.885762 0 25 255
0.0983425 -0.092343 -0.347 0.176801 -0.176803 0.968237 0 25 255
0.0991644 -0.092343 -0.347 0 0 1 0 25 255
0.0999863 -0.092343 -0.347 0 0 1 0 25 255
0.100808 -0.092343 -0.347 -0.177569 -0.355144 0.917792 0 25 255
0.10163 -0.092343 -0.347 0 -0.464141 0.885761 0 25 255
0.102452 -0.092343 -0.347 0 -0.464139 0.885762 0 25 255
0.103274 -0.092343 -0.347 0 -0.46414 0.885762 0 25 255
0.104096 -0.092343 -0.347 -0.285595 -0.571191 0.76953 0 25 255
0.104616 -0.0920769 -0.346 1.07103e-08 -0.464139 0.885762 0 23 255
0.10574 -0.092343 -0.347 -1.07275e-08 -0.464441 0.885604 0 25 255
0.106255 -0.0920769 -0.346 -0.286039 -0.572084 0.768701 0 23 255
0.107074 -0.0920769 -0.346 0.29843 -0.29843 0.906575 0 23 255
0.108206 -0.092343 -0.347 0.298239 -0.298239 0.906701 0 25 255
0.109027 -0.092343 -0.347 -0.286487 -0.572979 0.767868 0 25 255
0.109533 -0.0920769 -0.346 -0.286638 -0.573277 0.767588 0 23 255
0.110352 -0.0920769 -0.346 0 -0.464442 0.885604 0 23 255
0.111172 -0.0920769 -0.346 0 -0.464441 0.885604 0 23 255
0.111991 -0.0920769 -0.346 0 -0.464441 0.885604 0 23 255
0.112811 -0.0920769 -0.346 0 -0.464442 0.885604 0 23 255
0.113631 -0.0920769 -0.346 -0.178814 -0.357628 0.916585 0 23 255
0.11445 -0.0920769 -0.346 0 0 1 0 23 255
0.11527 -0.0920769 -0.346 0 0 1 0 23 255
0.116089 -0.0920769 -0.346 0 0 1 0 23 255
0.116909 -0.0920769 -0.346 0 0 1 0 23 255
0.117728 -0.0920769 -0.346 0 0 1 0 23 255
0.118548 -0.0920769 -0.346 0 0 1 0 23 255
0.119367 -0.0920769 -0.346 0 0 1 0 23 255
0.120187 -0.0920769 -0.346 0.175028 -0.175028 0.968881 0 23 255
